ply
format ascii 1.0
comment Created by Open3D
element vertex 1730
property double x
property double y
property double z
end_header
-0.132807 0.303458 0.227626
-0.132398 0.303036 0.227103
-0.1315 0.30218 0.225786
-0.132101 0.302469 0.22582
-0.131645 0.302406 0.226442
-0.131257 0.30214 0.226132
-0.13097 0.301942 0.225833
-0.13206 0.302676 0.22658
-0.131795 0.302621 0.226971
-0.131379 0.302392 0.227091
-0.132063 0.302875 0.227297
-0.131697 0.302672 0.227476
-0.131895 0.302938 0.228225
-0.130878 0.302062 0.22672
-0.130871 0.302153 0.227328
-0.132334 0.303197 0.227922
-0.132614 0.303493 0.228302
-0.133197 0.303858 0.228074
-0.133654 0.304255 0.228215
-0.133413 0.30428 0.228761
-0.133042 0.303886 0.228514
-0.132415 0.303435 0.228693
-0.132671 0.303768 0.229119
-0.13322 0.30434 0.229397
-0.132465 0.303725 0.229567
-0.133034 0.304308 0.229866
-0.132412 0.303734 0.229866
-0.131226 0.302454 0.22785
-0.131484 0.30269 0.228342
-0.130512 0.302006 0.227775
-0.13082 0.302231 0.228074
-0.130158 0.301807 0.228223
-0.130561 0.302083 0.228372
-0.131024 0.302454 0.228818
-0.130784 0.302302 0.229044
-0.13033 0.301939 0.228671
-0.131828 0.303036 0.22897
-0.131333 0.302717 0.229139
-0.131723 0.303078 0.229461
-0.131222 0.302708 0.229642
-0.131775 0.303172 0.229845
-0.130165 0.301798 0.229119
-0.13049 0.302076 0.229119
-0.130176 0.301784 0.229717
-0.130482 0.30208 0.229717
-0.1308 0.302363 0.229717
-0.131155 0.302678 0.23009
-0.132167 0.303339 0.229119
-0.129309 0.301292 0.225759
-0.129133 0.301236 0.225385
-0.128797 0.301013 0.226569
-0.129216 0.301233 0.226431
-0.129072 0.30119 0.225983
-0.129702 0.301449 0.226192
-0.128579 0.301017 0.225543
-0.127759 0.300694 0.225833
-0.128529 0.300949 0.226132
-0.128057 0.30075 0.226132
-0.127763 0.300561 0.226487
-0.128218 0.300661 0.227112
-0.128173 0.300724 0.226655
-0.127637 0.300351 0.227177
-0.128057 0.300426 0.227702
-0.128338 0.300628 0.227571
-0.127795 0.300257 0.227777
-0.128827 0.300974 0.227028
-0.12924 0.301223 0.227102
-0.129622 0.301425 0.226804
-0.128838 0.300949 0.227402
-0.129674 0.301474 0.227476
-0.127518 0.300622 0.225865
-0.127051 0.300626 0.225383
-0.127163 0.300445 0.226131
-0.126564 0.300481 0.225535
-0.126863 0.300453 0.225833
-0.127456 0.300453 0.226444
-0.126509 0.300185 0.226441
-0.125966 0.30035 0.225684
-0.125966 0.300062 0.22652
-0.125233 0.300069 0.226429
-0.127161 0.300192 0.227028
-0.126854 0.300084 0.227032
-0.126564 0.299815 0.227609
-0.127462 0.300064 0.227835
-0.127151 0.299961 0.227724
-0.125685 0.299964 0.226728
-0.125369 0.299857 0.227028
-0.126279 0.299751 0.227622
-0.125966 0.299765 0.227412
-0.125679 0.299764 0.227326
-0.125384 0.299671 0.227702
-0.128351 0.300463 0.228296
-0.128044 0.300144 0.228746
-0.127768 0.300015 0.228554
-0.129111 0.3011 0.227775
-0.129402 0.301255 0.228148
-0.128842 0.30089 0.22799
-0.129671 0.301473 0.227775
-0.129803 0.301549 0.228223
-0.129126 0.300988 0.228596
-0.129747 0.301462 0.228889
-0.128607 0.300656 0.228295
-0.127736 0.299806 0.229343
-0.128075 0.300009 0.229427
-0.128751 0.300608 0.229044
-0.128488 0.3003 0.229492
-0.128177 0.299981 0.230015
-0.12777 0.299716 0.230026
-0.128943 0.300628 0.2297
-0.129051 0.300813 0.229268
-0.128644 0.300328 0.230006
-0.12944 0.301172 0.229188
-0.129344 0.300947 0.22995
-0.129638 0.301198 0.230015
-0.12988 0.301483 0.229717
-0.126848 0.299781 0.227932
-0.12746 0.299845 0.228522
-0.127173 0.299713 0.228534
-0.126863 0.299609 0.228522
-0.126415 0.299525 0.228447
-0.125966 0.299528 0.228223
-0.125668 0.2996 0.227924
-0.125369 0.299522 0.228372
-0.127161 0.299564 0.229119
-0.127483 0.299709 0.229123
-0.12746 0.29959 0.229717
-0.142599 0.304506 0.222694
-0.142039 0.304486 0.222411
-0.142101 0.304801 0.222696
-0.141798 0.304538 0.222369
-0.141499 0.304557 0.22235
-0.141798 0.304854 0.222645
-0.141499 0.304854 0.222639
-0.141162 0.30451 0.22239
-0.140902 0.304546 0.222578
-0.141195 0.304802 0.222695
-0.143574 0.304473 0.223306
-0.143292 0.304427 0.223061
-0.143176 0.304783 0.223308
-0.143936 0.304523 0.223579
-0.144239 0.3048 0.223872
-0.143889 0.3048 0.223724
-0.143602 0.304821 0.223586
-0.144052 0.305055 0.223908
-0.143248 0.305087 0.223603
-0.14359 0.305225 0.22384
-0.143348 0.305408 0.223884
-0.143047 0.304521 0.222977
-0.14253 0.304832 0.222965
-0.14284 0.305124 0.223418
-0.142098 0.305099 0.222995
-0.142396 0.305167 0.223219
-0.142097 0.305373 0.223326
-0.142993 0.305509 0.223861
-0.142532 0.305418 0.223568
-0.142581 0.305689 0.223898
-0.142097 0.305719 0.223781
-0.144039 0.305398 0.224043
-0.144043 0.305715 0.224182
-0.14374 0.305995 0.22429
-0.14359 0.305752 0.224158
-0.143292 0.305766 0.22414
-0.143292 0.305995 0.224293
-0.143889 0.306294 0.224389
-0.144039 0.306741 0.22449
-0.14359 0.30636 0.224459
-0.143292 0.30645 0.224563
-0.14359 0.306593 0.224563
-0.142993 0.305936 0.224237
-0.142694 0.305967 0.224217
-0.142244 0.306003 0.22418
-0.143063 0.306289 0.224493
-0.142694 0.30628 0.224501
-0.142396 0.306284 0.224499
-0.142097 0.306428 0.224655
-0.142993 0.30665 0.22475
-0.142558 0.3066 0.224782
-0.140902 0.304851 0.222939
-0.141798 0.305134 0.222953
-0.141499 0.305123 0.222965
-0.141798 0.30557 0.223532
-0.141499 0.305515 0.223484
-0.141266 0.305084 0.223012
-0.140902 0.30515 0.223243
-0.141201 0.305382 0.2234
-0.14075 0.305419 0.22357
-0.140613 0.304799 0.222997
-0.14045 0.304926 0.223169
-0.140155 0.30487 0.223224
-0.139774 0.304634 0.223163
-0.140305 0.305341 0.223655
-0.139985 0.305254 0.223735
-0.139692 0.305179 0.223848
-0.141499 0.305922 0.224025
-0.141051 0.305729 0.22385
-0.140631 0.305816 0.224079
-0.140182 0.305662 0.224111
-0.141798 0.306152 0.22433
-0.141023 0.30599 0.224197
-0.14135 0.306353 0.224661
-0.140902 0.306255 0.224606
-0.141798 0.306648 0.224964
-0.141499 0.306638 0.225022
-0.141075 0.3066 0.225075
-0.140297 0.306127 0.224661
-0.139787 0.305835 0.224595
-0.140583 0.306204 0.224634
-0.140455 0.306505 0.225161
-0.139989 0.306298 0.22508
-0.139538 0.306266 0.225362
-0.144188 0.30719 0.224606
-0.143854 0.307041 0.224678
-0.14359 0.307077 0.224807
-0.143344 0.306877 0.224797
-0.143292 0.30727 0.225045
-0.144168 0.307638 0.224723
-0.143907 0.307437 0.224797
-0.143744 0.307771 0.225003
-0.143476 0.307489 0.225061
-0.143015 0.307034 0.225009
-0.142694 0.306945 0.225045
-0.142228 0.306879 0.2251
-0.144201 0.308031 0.224795
-0.143707 0.308086 0.225125
-0.144037 0.308398 0.224984
-0.14415 0.308833 0.224982
-0.14345 0.308838 0.225443
-0.139397 0.304724 0.22351
-0.139064 0.304496 0.223484
-0.139109 0.30495 0.22404
-0.138588 0.304491 0.223829
-0.13867 0.304944 0.224346
-0.139391 0.305389 0.224347
-0.13911 0.305544 0.224754
-0.138485 0.305385 0.224978
-0.138005 0.304641 0.224404
-0.137467 0.304501 0.224639
-0.137783 0.305074 0.225131
-0.137332 0.304907 0.225329
-0.139091 0.305994 0.2253
-0.144142 0.309281 0.22505
-0.144146 0.30958 0.225053
-0.144077 0.310252 0.225062
-0.144188 0.310625 0.224934
-0.143917 0.310924 0.225106
-0.144053 0.311369 0.22495
-0.14403 0.311959 0.22493
-0.143853 0.312716 0.225053
-0.14363 0.313164 0.225264
-0.135117 0.311189 0.220606
-0.135313 0.311574 0.221203
-0.134553 0.310968 0.221213
-0.135304 0.311444 0.220915
-0.134685 0.311203 0.221487
-0.138981 0.313601 0.220575
-0.139253 0.313938 0.220917
-0.138381 0.313474 0.220904
-0.138425 0.31368 0.221207
-0.138186 0.313179 0.220547
-0.137756 0.312974 0.220577
-0.137744 0.313176 0.221009
-0.137169 0.312653 0.220608
-0.137465 0.312959 0.220901
-0.137166 0.313022 0.221348
-0.137979 0.313709 0.221615
-0.137642 0.313447 0.221555
-0.137026 0.313315 0.221951
-0.137491 0.313701 0.222033
-0.136594 0.312316 0.220606
-0.13682 0.312582 0.220939
-0.136011 0.311998 0.220905
-0.13641 0.312277 0.220853
-0.135988 0.312108 0.221198
-0.136476 0.312519 0.221267
-0.135937 0.312275 0.221533
-0.135385 0.311813 0.221525
-0.136659 0.312882 0.221667
-0.135816 0.31245 0.221944
-0.134803 0.311497 0.221806
-0.135315 0.312014 0.221892
-0.134562 0.31153 0.222123
-0.134837 0.312174 0.222642
-0.136026 0.312878 0.222357
-0.135417 0.312773 0.222836
-0.136578 0.313447 0.222563
-0.134729 0.31248 0.223169
-0.137268 0.313961 0.222544
-0.136125 0.313604 0.223148
-0.135335 0.313198 0.223445
-0.134557 0.312685 0.223608
-0.13525 0.313484 0.223838
-0.135512 0.313931 0.224025
-0.134659 0.31361 0.22447
-0.140699 0.30677 0.22552
-0.140006 0.306559 0.225502
-0.139578 0.306576 0.225849
-0.143109 0.307787 0.225414
-0.14262 0.307319 0.225355
-0.142211 0.307183 0.225394
-0.142993 0.307547 0.225348
-0.14258 0.307559 0.22555
-0.142532 0.307812 0.225728
-0.142132 0.307479 0.225692
-0.142066 0.307801 0.225974
-0.143304 0.30804 0.225394
-0.143198 0.308383 0.225547
-0.142813 0.308086 0.225712
-0.142573 0.308385 0.225943
-0.14238 0.308133 0.225973
-0.141897 0.308057 0.226266
-0.142092 0.308406 0.226278
-0.142457 0.308684 0.226085
-0.142681 0.309143 0.225974
-0.14228 0.308982 0.226246
-0.141798 0.30695 0.22532
-0.141338 0.306876 0.22541
-0.141673 0.307209 0.225665
-0.141051 0.307087 0.225859
-0.141038 0.307274 0.226124
-0.141665 0.307497 0.225967
-0.141663 0.307765 0.226222
-0.141051 0.307513 0.226403
-0.140425 0.306963 0.225974
-0.140448 0.30714 0.226273
-0.139857 0.306774 0.226018
-0.139576 0.306781 0.226283
-0.140977 0.307846 0.226779
-0.140066 0.307147 0.22663
-0.139593 0.3069 0.22656
-0.140634 0.307471 0.226626
-0.14032 0.307467 0.226893
-0.140642 0.307757 0.226942
-0.139829 0.307214 0.226986
-0.140331 0.30774 0.227202
-0.139869 0.307471 0.227339
-0.139782 0.307677 0.2277
-0.13984 0.307787 0.227763
-0.141505 0.308074 0.226584
-0.141626 0.308385 0.226639
-0.141026 0.308086 0.226927
-0.141201 0.308217 0.226879
-0.141245 0.308385 0.226909
-0.141466 0.308695 0.22681
-0.141413 0.308982 0.226861
-0.140891 0.308445 0.227169
-0.140925 0.308684 0.227195
-0.140934 0.309132 0.227203
-0.140619 0.308047 0.22719
-0.140315 0.308057 0.227486
-0.140552 0.308385 0.227429
-0.140603 0.30869 0.227476
-0.140617 0.308982 0.22749
-0.139998 0.308385 0.227988
-0.139873 0.308037 0.227941
-0.139966 0.308706 0.228108
-0.140121 0.30909 0.227965
-0.13742 0.305381 0.225864
-0.138277 0.30569 0.225498
-0.138667 0.306059 0.225694
-0.139113 0.306361 0.225832
-0.138352 0.306235 0.226267
-0.138662 0.306459 0.226431
-0.137803 0.305714 0.225946
-0.138055 0.305997 0.226128
-0.137424 0.305746 0.226372
-0.138889 0.306673 0.226731
-0.138507 0.306662 0.227026
-0.137535 0.306055 0.22672
-0.137879 0.306256 0.226712
-0.138191 0.306545 0.227018
-0.137908 0.306549 0.227306
-0.137595 0.30632 0.227149
-0.137022 0.306072 0.227334
-0.137319 0.306366 0.227625
-0.136986 0.304897 0.225619
-0.136431 0.30466 0.225728
-0.135897 0.304651 0.226206
-0.136573 0.305119 0.226257
-0.135205 0.304594 0.226833
-0.136932 0.305672 0.226739
-0.1362 0.305288 0.226871
-0.135724 0.305373 0.227526
-0.135146 0.305069 0.22767
-0.136418 0.305718 0.227338
-0.139168 0.306919 0.227049
-0.139372 0.30715 0.22731
-0.138977 0.307172 0.227717
-0.138829 0.306927 0.227355
-0.138373 0.306814 0.227495
-0.137289 0.306543 0.228148
-0.135072 0.305253 0.228059
-0.136361 0.306034 0.228017
-0.135856 0.305693 0.227917
-0.136489 0.306215 0.228306
-0.136877 0.306531 0.228753
-0.13627 0.306229 0.228664
-0.135671 0.305795 0.228364
-0.135815 0.306 0.228639
-0.135233 0.30569 0.228802
-0.135029 0.305411 0.228432
-0.136297 0.306375 0.22919
-0.136829 0.306616 0.229111
-0.136439 0.306582 0.229636
-0.136123 0.306411 0.229717
-0.136282 0.306587 0.230015
-0.135613 0.306012 0.229109
-0.135021 0.305708 0.229268
-0.135861 0.306239 0.229576
-0.135346 0.305959 0.229567
-0.134918 0.305702 0.229509
-0.134689 0.305594 0.229866
-0.135402 0.306049 0.229941
-0.138512 0.307037 0.227924
-0.138624 0.307211 0.228205
-0.139274 0.307469 0.227941
-0.139144 0.30772 0.228408
-0.138837 0.30747 0.228433
-0.138512 0.307369 0.228671
-0.138745 0.307548 0.228671
-0.13887 0.307787 0.228794
-0.138079 0.306841 0.227938
-0.13784 0.307015 0.228746
-0.13807 0.307187 0.228832
-0.137471 0.306804 0.228677
-0.139423 0.308041 0.228387
-0.138983 0.308014 0.228846
-0.139368 0.308385 0.228628
-0.139253 0.308982 0.228814
-0.138484 0.307531 0.228942
-0.138347 0.307825 0.229402
-0.137119 0.306862 0.22932
-0.137524 0.307159 0.229431
-0.138064 0.307352 0.229119
-0.138041 0.307519 0.229382
-0.137902 0.307819 0.229853
-0.13737 0.307233 0.229763
-0.137611 0.307494 0.229852
-0.138935 0.308385 0.229092
-0.138474 0.308086 0.229455
-0.138959 0.308684 0.229117
-0.138795 0.309132 0.229254
-0.138489 0.308385 0.229544
-0.138503 0.308684 0.229558
-0.138488 0.308982 0.229546
-0.138027 0.308086 0.229896
-0.138175 0.308385 0.229832
-0.138174 0.308684 0.229836
-0.138159 0.309057 0.22979
-0.136891 0.30695 0.229866
-0.143429 0.309281 0.225513
-0.143435 0.30958 0.225524
-0.143743 0.310244 0.225291
-0.143042 0.310064 0.225759
-0.142416 0.30943 0.226169
-0.142207 0.309654 0.226297
-0.142468 0.310513 0.226113
-0.142146 0.310028 0.226308
-0.143567 0.310924 0.225367
-0.143144 0.310625 0.225686
-0.143558 0.311596 0.225358
-0.14314 0.311223 0.225678
-0.141964 0.310476 0.22638
-0.142206 0.310924 0.226272
-0.142699 0.311217 0.225986
-0.142186 0.311521 0.226347
-0.14156 0.309294 0.22675
-0.141638 0.30958 0.226657
-0.141255 0.30958 0.226918
-0.141616 0.309878 0.226611
-0.141598 0.310177 0.22658
-0.141203 0.309894 0.226881
-0.141176 0.310177 0.226859
-0.140891 0.30974 0.227168
-0.140701 0.310177 0.227279
-0.140584 0.309625 0.227457
-0.141541 0.310476 0.226604
-0.14168 0.310775 0.22655
-0.14117 0.310476 0.226855
-0.141177 0.310775 0.226863
-0.141635 0.311229 0.226646
-0.141224 0.311227 0.226895
-0.140848 0.310625 0.227132
-0.140851 0.311073 0.227136
-0.140906 0.311564 0.22718
-0.140552 0.310849 0.227423
-0.140566 0.311521 0.227444
-0.143167 0.31182 0.225676
-0.143549 0.312418 0.225347
-0.143126 0.312567 0.225702
-0.142701 0.31182 0.226017
-0.142702 0.312418 0.226017
-0.143418 0.313687 0.225477
-0.142875 0.313276 0.225937
-0.142217 0.31259 0.226409
-0.142177 0.313434 0.22651
-0.14295 0.314135 0.225944
-0.142524 0.31406 0.226301
-0.141902 0.312044 0.226599
-0.141831 0.312978 0.226741
-0.141327 0.311671 0.226934
-0.141349 0.311986 0.226968
-0.14155 0.312642 0.226911
-0.140949 0.311969 0.227204
-0.141009 0.312268 0.227189
-0.141024 0.312567 0.227218
-0.140575 0.312119 0.227455
-0.140609 0.312525 0.22748
-0.141433 0.313463 0.227071
-0.141675 0.314061 0.226968
-0.141276 0.313045 0.227131
-0.140544 0.312866 0.227608
-0.140737 0.313164 0.227548
-0.141195 0.313911 0.22732
-0.140925 0.313599 0.227493
-0.140113 0.309841 0.227885
-0.139668 0.309505 0.228334
-0.139796 0.310327 0.228115
-0.140234 0.310625 0.227711
-0.139883 0.310775 0.228014
-0.13987 0.311223 0.228045
-0.140181 0.31182 0.227772
-0.139618 0.311671 0.228278
-0.139913 0.311969 0.227992
-0.140121 0.312268 0.227814
-0.140133 0.312567 0.227837
-0.139757 0.312268 0.228121
-0.139735 0.312791 0.228155
-0.13948 0.312119 0.228394
-0.140352 0.313164 0.227804
-0.13993 0.312866 0.228023
-0.139955 0.313314 0.228046
-0.140589 0.313855 0.227777
-0.140305 0.313612 0.227897
-0.139999 0.313815 0.22807
-0.139707 0.313612 0.228219
-0.139344 0.309729 0.228641
-0.139467 0.310327 0.228433
-0.139457 0.310924 0.228421
-0.139167 0.310625 0.228727
-0.139151 0.311223 0.228709
-0.139068 0.309729 0.22893
-0.138755 0.309729 0.229221
-0.138861 0.310476 0.229028
-0.138546 0.310327 0.229291
-0.13846 0.309468 0.22949
-0.138064 0.30997 0.229677
-0.137815 0.309641 0.229897
-0.137637 0.310329 0.229879
-0.138498 0.311154 0.229258
-0.138827 0.311185 0.228999
-0.138069 0.310625 0.229576
-0.137453 0.310775 0.229934
-0.138092 0.311223 0.229524
-0.137502 0.311372 0.229872
-0.138898 0.311895 0.228905
-0.139159 0.312305 0.228694
-0.139446 0.312866 0.22841
-0.13915 0.313015 0.228708
-0.13945 0.313463 0.228414
-0.139437 0.313911 0.228477
-0.139167 0.313612 0.22873
-0.138481 0.31182 0.229246
-0.138828 0.312716 0.228983
-0.138484 0.312492 0.229248
-0.138086 0.31182 0.229513
-0.13744 0.311895 0.229909
-0.138092 0.312418 0.229521
-0.137629 0.312676 0.229839
-0.138677 0.313151 0.229132
-0.138903 0.313612 0.22899
-0.138629 0.313612 0.229238
-0.138192 0.313015 0.229504
-0.138061 0.313414 0.229648
-0.137285 0.31294 0.230093
-0.138387 0.313911 0.229506
-0.137653 0.313749 0.229998
-0.137415 0.313314 0.23007
-0.132406 0.308698 0.220602
-0.132806 0.309147 0.220744
-0.132395 0.309017 0.220873
-0.130522 0.307758 0.220555
-0.129878 0.30746 0.22052
-0.131778 0.308358 0.220632
-0.131051 0.308039 0.220629
-0.131214 0.308391 0.220907
-0.131857 0.308862 0.221025
-0.130975 0.308602 0.221183
-0.131497 0.30898 0.221277
-0.130417 0.308218 0.221075
-0.129992 0.307805 0.220811
-0.129773 0.308062 0.221194
-0.131221 0.309118 0.221534
-0.130372 0.308688 0.221535
-0.130747 0.309091 0.221764
-0.129884 0.308784 0.221873
-0.128281 0.306593 0.220484
-0.127713 0.306497 0.220615
-0.126934 0.305512 0.220481
-0.125966 0.304502 0.220472
-0.126265 0.3048 0.220442
-0.125795 0.304958 0.220722
-0.125519 0.304499 0.220681
-0.125362 0.305057 0.220963
-0.126105 0.30526 0.220696
-0.126575 0.305765 0.220717
-0.127012 0.306294 0.220775
-0.12746 0.306593 0.220752
-0.127043 0.306625 0.220965
-0.126727 0.306349 0.220916
-0.126412 0.306519 0.221202
-0.125819 0.305695 0.22098
-0.126121 0.305991 0.220979
-0.125375 0.305683 0.221207
-0.125668 0.305994 0.221204
-0.125313 0.306028 0.221466
-0.126265 0.306294 0.221078
-0.125981 0.306274 0.221211
-0.126135 0.306574 0.221459
-0.125649 0.306307 0.221472
-0.125185 0.306339 0.221918
-0.125684 0.306575 0.221814
-0.125229 0.30659 0.222253
-0.129183 0.307188 0.220549
-0.128767 0.306925 0.220507
-0.129166 0.307491 0.220811
-0.129226 0.3077 0.221023
-0.128506 0.30719 0.220771
-0.128057 0.30681 0.220652
-0.127759 0.306891 0.220813
-0.127921 0.307085 0.220917
-0.12858 0.30745 0.221006
-0.128994 0.308023 0.221487
-0.128349 0.30764 0.221351
-0.127903 0.307651 0.221655
-0.127597 0.307146 0.221195
-0.12969 0.308359 0.221528
-0.129088 0.308361 0.221831
-0.129636 0.308859 0.222116
-0.128584 0.308326 0.222105
-0.129098 0.308764 0.222396
-0.128479 0.308071 0.221821
-0.127697 0.307882 0.222125
-0.127909 0.308152 0.2224
-0.12808 0.308383 0.222704
-0.129103 0.308912 0.222698
-0.127517 0.306891 0.22094
-0.127006 0.306829 0.221199
-0.127175 0.307288 0.221709
-0.127452 0.307372 0.2216
-0.126623 0.30682 0.221474
-0.126724 0.30718 0.221958
-0.126392 0.306938 0.221869
-0.127097 0.307528 0.222099
-0.126771 0.307456 0.222307
-0.127198 0.307778 0.222416
-0.126599 0.307561 0.222661
-0.125782 0.306784 0.2221
-0.126108 0.307131 0.222386
-0.125727 0.307096 0.22267
-0.128514 0.308753 0.223129
-0.129053 0.308984 0.222995
-0.128809 0.308977 0.223442
-0.127575 0.308211 0.222995
-0.127497 0.308281 0.223428
-0.128141 0.308838 0.22434
-0.127255 0.308353 0.224345
-0.128486 0.30903 0.224414
-0.126104 0.307443 0.222967
-0.126704 0.307737 0.222967
-0.126198 0.307595 0.223293
-0.125287 0.307013 0.222978
-0.12552 0.307304 0.223448
-0.125731 0.30749 0.223734
-0.126224 0.307708 0.223741
-0.12522 0.307269 0.223891
-0.126863 0.307938 0.223444
-0.126415 0.307932 0.224489
-0.125635 0.307572 0.224414
-0.125195 0.307312 0.22419
-0.126009 0.307772 0.224647
-0.125185 0.307401 0.22484
-0.125848 0.307821 0.225423
-0.126525 0.308158 0.22532
-0.127084 0.308515 0.225461
-0.13403 0.31018 0.220604
-0.133588 0.309719 0.22061
-0.133591 0.310021 0.220922
-0.133138 0.309434 0.220754
-0.132384 0.309283 0.221106
-0.1328 0.309605 0.221149
-0.132388 0.309556 0.221377
-0.133291 0.310017 0.221211
-0.132676 0.309862 0.221533
-0.133296 0.310237 0.221524
-0.134329 0.310478 0.2206
-0.134633 0.310771 0.220622
-0.134444 0.310739 0.220905
-0.134055 0.310436 0.220939
-0.133853 0.310432 0.221203
-0.134009 0.310791 0.221682
-0.133342 0.310527 0.222005
-0.132995 0.31023 0.221809
-0.132402 0.30992 0.221823
-0.132695 0.310229 0.222107
-0.133105 0.310765 0.222742
-0.134178 0.311074 0.221941
-0.133289 0.311062 0.222949
-0.133676 0.311398 0.22291
-0.132697 0.310406 0.222495
-0.132308 0.310491 0.223187
-0.131941 0.309354 0.221426
-0.131941 0.309627 0.221739
-0.131503 0.309489 0.221813
-0.132019 0.309902 0.222101
-0.130865 0.309386 0.222091
-0.131911 0.31001 0.222413
-0.131269 0.309845 0.222698
-0.132104 0.310283 0.222921
-0.130007 0.309197 0.22241
-0.130739 0.309518 0.222432
-0.129858 0.309261 0.22272
-0.130561 0.309562 0.222697
-0.134043 0.311681 0.222861
-0.132727 0.310887 0.223369
-0.132992 0.311305 0.223584
-0.132389 0.311069 0.224035
-0.132412 0.311553 0.224619
-0.131633 0.310132 0.223122
-0.130952 0.309871 0.223191
-0.130166 0.309482 0.222967
-0.13017 0.309628 0.223483
-0.13122 0.310132 0.223676
-0.130879 0.310131 0.224095
-0.130203 0.309842 0.224193
-0.132015 0.310624 0.223817
-0.13208 0.310783 0.224015
-0.131493 0.31028 0.223742
-0.13125 0.310422 0.224377
-0.130445 0.310108 0.224632
-0.13151 0.310763 0.224715
-0.131953 0.311076 0.22462
-0.131787 0.311375 0.225221
-0.13163 0.310996 0.224929
-0.13075 0.310556 0.225243
-0.130165 0.310227 0.225248
-0.133661 0.312042 0.223748
-0.132994 0.311813 0.224204
-0.13433 0.312863 0.224035
-0.133751 0.312626 0.224335
-0.133143 0.312384 0.224708
-0.132937 0.312681 0.225244
-0.13228 0.311842 0.225128
-0.134125 0.313166 0.224547
-0.133921 0.313344 0.224897
-0.134201 0.313715 0.224955
-0.133464 0.312955 0.224966
-0.129185 0.309178 0.223554
-0.129567 0.309516 0.224114
-0.129117 0.309342 0.224336
-0.129409 0.309644 0.224811
-0.12867 0.309256 0.224933
-0.128938 0.309516 0.225234
-0.129852 0.309933 0.224944
-0.129473 0.309848 0.225253
-0.134368 0.304728 0.228082
-0.13385 0.304527 0.228522
-0.134473 0.304955 0.228352
-0.13402 0.304816 0.228834
-0.134418 0.305122 0.228806
-0.133722 0.304809 0.229449
-0.134644 0.305386 0.22903
-0.134461 0.305327 0.229268
-0.134091 0.305053 0.229268
-0.134032 0.305099 0.229569
-0.134509 0.30544 0.229567
-0.133994 0.305125 0.229866
-0.133618 0.304836 0.229866
-0.125483 0.307691 0.225896
-0.127785 0.30892 0.225548
-0.126734 0.308401 0.225908
-0.127133 0.308779 0.226431
-0.127712 0.308979 0.225958
-0.126555 0.308398 0.226437
-0.126094 0.308039 0.225983
-0.126153 0.308112 0.226281
-0.125504 0.307728 0.226281
-0.125593 0.307803 0.227028
-0.125369 0.307643 0.227327
-0.125501 0.307728 0.226655
-0.1256 0.307852 0.227626
-0.127517 0.309026 0.226476
-0.127135 0.309 0.227038
-0.126851 0.308693 0.22676
-0.126445 0.308428 0.226879
-0.126737 0.308748 0.227177
-0.126712 0.308834 0.227465
-0.126012 0.308056 0.22658
-0.125889 0.308036 0.227052
-0.126255 0.308395 0.22735
-0.125918 0.308128 0.227476
-0.125183 0.307453 0.227775
-0.125414 0.307671 0.228074
-0.125706 0.30797 0.228671
-0.12522 0.307339 0.228673
-0.125429 0.307663 0.228372
-0.126049 0.308301 0.227775
-0.125731 0.308019 0.228074
-0.126166 0.30848 0.228074
-0.12665 0.308895 0.227775
-0.126735 0.309108 0.228105
-0.125864 0.308181 0.228372
-0.125997 0.308346 0.228671
-0.126274 0.308674 0.228508
-0.126696 0.309151 0.228357
-0.126565 0.309131 0.22882
-0.125672 0.307778 0.229156
-0.125456 0.30747 0.229119
-0.125371 0.30697 0.229703
-0.125401 0.307208 0.229432
-0.125628 0.307435 0.229678
-0.125869 0.307944 0.229606
-0.12606 0.308225 0.229866
-0.125678 0.307323 0.230018
-0.125913 0.308213 0.22897
-0.125988 0.308273 0.229268
-0.126344 0.308844 0.22897
-0.126375 0.308913 0.229268
-0.126178 0.308537 0.229602
-0.126497 0.309122 0.229567
-0.126538 0.309203 0.229866
-0.131199 0.311072 0.225536
-0.131225 0.311347 0.225854
-0.130875 0.310803 0.225514
-0.130154 0.310547 0.22584
-0.129993 0.310672 0.226202
-0.130754 0.311067 0.225998
-0.130344 0.311209 0.226551
-0.132326 0.312294 0.225542
-0.133341 0.313839 0.225817
-0.133011 0.313105 0.225559
-0.132365 0.312765 0.22594
-0.133225 0.313435 0.225621
-0.132554 0.313272 0.226148
-0.132648 0.313921 0.226544
-0.131515 0.311652 0.225866
-0.131798 0.31211 0.225999
-0.131365 0.311945 0.226326
-0.131793 0.312421 0.226289
-0.131071 0.311618 0.226308
-0.13213 0.313078 0.226441
-0.131201 0.312251 0.226736
-0.131724 0.31291 0.22673
-0.131217 0.312942 0.227219
-0.130309 0.311655 0.227037
-0.130604 0.31195 0.227034
-0.129695 0.311227 0.227165
-0.130491 0.312404 0.227476
-0.132082 0.313786 0.227021
-0.130895 0.313528 0.227893
-0.13034 0.3129 0.227957
-0.130128 0.31327 0.228382
-0.131222 0.31393 0.227856
-0.130593 0.313921 0.22837
-0.130381 0.3141 0.228659
-0.12949 0.310044 0.225669
-0.128961 0.309796 0.225838
-0.129274 0.31013 0.22611
-0.128292 0.309231 0.225591
-0.128666 0.309581 0.225814
-0.128118 0.309327 0.226181
-0.12824 0.309597 0.226502
-0.128113 0.309241 0.225983
-0.128665 0.309871 0.226392
-0.12765 0.309258 0.226757
-0.12918 0.310354 0.226585
-0.128504 0.310033 0.226883
-0.127589 0.309448 0.22717
-0.128092 0.309996 0.227334
-0.128502 0.310363 0.227346
-0.127748 0.30989 0.227665
-0.129679 0.310807 0.226708
-0.129043 0.310466 0.226895
-0.129009 0.310755 0.227294
-0.127326 0.309417 0.22753
-0.129531 0.311535 0.227606
-0.128185 0.310349 0.227717
-0.127612 0.310025 0.228083
-0.129088 0.311245 0.227751
-0.128493 0.310787 0.227895
-0.128059 0.310626 0.228231
-0.128794 0.311234 0.228051
-0.127768 0.310598 0.228638
-0.128504 0.311224 0.22837
-0.128055 0.311063 0.228801
-0.128511 0.311515 0.228686
-0.128293 0.31151 0.228983
-0.127682 0.310916 0.229294
-0.128142 0.311528 0.229251
-0.127843 0.311325 0.229571
-0.127256 0.309483 0.227775
-0.127142 0.309603 0.228243
-0.12681 0.309403 0.228671
-0.12742 0.309993 0.228372
-0.127308 0.310031 0.228661
-0.126987 0.309763 0.228965
-0.126829 0.309634 0.229268
-0.127397 0.310427 0.22913
-0.127102 0.310127 0.229424
-0.126828 0.309701 0.229567
-0.126963 0.310015 0.229866
-0.127398 0.310729 0.229722
-0.127348 0.310784 0.23009
-0.127666 0.311223 0.229866
-0.12967 0.311982 0.227885
-0.129084 0.311693 0.228209
-0.12982 0.312371 0.228052
-0.12923 0.311996 0.228327
-0.128923 0.311989 0.228653
-0.129349 0.312422 0.22856
-0.129702 0.312862 0.228523
-0.129836 0.313297 0.228669
-0.129048 0.312544 0.228974
-0.128527 0.311938 0.229119
-0.128774 0.31249 0.229272
-0.128357 0.312081 0.229528
-0.128045 0.311867 0.229906
-0.129049 0.313283 0.229579
-0.12845 0.312507 0.229829
-0.129768 0.313632 0.228963
-0.12936 0.313395 0.229255
-0.129062 0.313634 0.229884
-0.126564 0.299275 0.230725
-0.127197 0.299411 0.230463
-0.126863 0.299325 0.230911
-0.127182 0.299417 0.230986
-0.126265 0.299254 0.230911
-0.125966 0.299277 0.230911
-0.125668 0.299319 0.230426
-0.125331 0.299413 0.23065
-0.127182 0.299417 0.231808
-0.126863 0.299318 0.231808
-0.126564 0.299263 0.232032
-0.127315 0.299425 0.232405
-0.126863 0.299292 0.232256
-0.126265 0.299269 0.232032
-0.125817 0.299322 0.231658
-0.125369 0.299427 0.231436
-0.126116 0.299315 0.232405
-0.125435 0.299448 0.231957
-0.125662 0.299394 0.232121
-0.127429 0.299468 0.233002
-0.127161 0.29936 0.232554
-0.127161 0.299382 0.233002
-0.126863 0.299285 0.232554
-0.126564 0.299268 0.232554
-0.126863 0.299335 0.233002
-0.126564 0.299313 0.232853
-0.127368 0.299465 0.233301
-0.127153 0.299452 0.233595
-0.126594 0.299403 0.233289
-0.126863 0.299449 0.233617
-0.126272 0.299397 0.232996
-0.125981 0.299425 0.232845
-0.125966 0.299367 0.232554
-0.125714 0.299442 0.232554
-0.130385 0.301835 0.230911
-0.130208 0.301693 0.230463
-0.130112 0.301551 0.230911
-0.130188 0.301623 0.231658
-0.130413 0.30185 0.231359
-0.132698 0.304044 0.230165
-0.132559 0.303884 0.231135
-0.132849 0.304191 0.230911
-0.132689 0.304052 0.230463
-0.132868 0.304172 0.231359
-0.132775 0.30401 0.231808
-0.132425 0.303724 0.231658
-0.132379 0.303614 0.232106
-0.132806 0.303931 0.232405
-0.133274 0.304362 0.232244
-0.133259 0.304406 0.231808
-0.131536 0.302992 0.230463
-0.130113 0.301651 0.230165
-0.130499 0.302059 0.230165
-0.1308 0.302353 0.230314
-0.130481 0.301979 0.230613
-0.131114 0.302647 0.230463
-0.130926 0.302443 0.230911
-0.130683 0.302181 0.230911
-0.131424 0.302888 0.231023
-0.132094 0.303452 0.230613
-0.132247 0.303598 0.230314
-0.132093 0.303454 0.231135
-0.131777 0.303171 0.231502
-0.131157 0.302595 0.231359
-0.131806 0.303143 0.231827
-0.131358 0.302696 0.231819
-0.131752 0.302991 0.232181
-0.131509 0.302695 0.232405
-0.130713 0.302144 0.231509
-0.131051 0.302405 0.231837
-0.130592 0.301967 0.232229
-0.131122 0.302355 0.23248
-0.13027 0.301689 0.232106
-0.132359 0.303484 0.232583
-0.129989 0.301375 0.232562
-0.130695 0.301959 0.23276
-0.129695 0.301071 0.232865
-0.129949 0.301184 0.233366
-0.130589 0.301681 0.233659
-0.130162 0.301204 0.234189
-0.130619 0.301643 0.234048
-0.130635 0.301626 0.234347
-0.130486 0.301478 0.234795
-0.130178 0.301191 0.234645
-0.130938 0.301919 0.234645
-0.132989 0.304051 0.23277
-0.132423 0.303419 0.233152
-0.133008 0.304031 0.233226
-0.13244 0.3034 0.23345
-0.13244 0.303399 0.233749
-0.133006 0.304031 0.2336
-0.132555 0.303586 0.234218
-0.132833 0.303909 0.234235
-0.133126 0.304216 0.233897
-0.133205 0.304391 0.234197
-0.132788 0.303972 0.234645
-0.132518 0.303631 0.234645
-0.13293 0.304203 0.234645
-0.131659 0.302695 0.232998
-0.131948 0.303001 0.232797
-0.131194 0.302261 0.233298
-0.131996 0.302956 0.233301
-0.131462 0.302446 0.2336
-0.131548 0.302507 0.234048
-0.13201 0.302942 0.233749
-0.131768 0.302732 0.234272
-0.131522 0.302529 0.234795
-0.131905 0.302969 0.234825
-0.132196 0.303198 0.234272
-0.131086 0.302072 0.234197
-0.127929 0.299777 0.230463
-0.128343 0.30003 0.230613
-0.129215 0.30077 0.230389
-0.128682 0.300297 0.230613
-0.127931 0.299771 0.230986
-0.128342 0.300031 0.231434
-0.129227 0.300754 0.230762
-0.128685 0.300294 0.231695
-0.129352 0.300859 0.231355
-0.129791 0.301273 0.230463
-0.129807 0.301256 0.230911
-0.128057 0.299839 0.231808
-0.127933 0.299747 0.232106
-0.128361 0.300018 0.232133
-0.12917 0.30071 0.231957
-0.128692 0.300285 0.232256
-0.12931 0.30082 0.232256
-0.129813 0.301256 0.232013
-0.12746 0.299528 0.230389
-0.12746 0.299532 0.231434
-0.12746 0.299508 0.232106
-0.127935 0.299708 0.232629
-0.125369 0.299568 0.232405
-0.128819 0.300338 0.232666
-0.129341 0.30082 0.232554
-0.129095 0.300476 0.233235
-0.128411 0.299984 0.232704
-0.128356 0.299892 0.233301
-0.128606 0.300061 0.233152
-0.128613 0.300053 0.23345
-0.127759 0.299607 0.233002
-0.128041 0.29973 0.233301
-0.127759 0.299633 0.2336
-0.128951 0.300322 0.233516
-0.12943 0.300669 0.233749
-0.128961 0.300315 0.233898
-0.12944 0.300645 0.234048
-0.128803 0.300233 0.234333
-0.12944 0.300644 0.234347
-0.128785 0.30027 0.234645
-0.129431 0.300658 0.234645
-0.128627 0.300087 0.233898
-0.128392 0.299957 0.233973
-0.128032 0.299779 0.233898
-0.127802 0.299707 0.234048
-0.128057 0.299894 0.234496
-0.128367 0.300017 0.234464
-0.127709 0.299729 0.234314
-0.127759 0.299822 0.234645
-0.129811 0.30095 0.233898
-0.12984 0.300924 0.234347
-0.129826 0.300934 0.234795
-0.125668 0.299587 0.233002
-0.125404 0.299769 0.233081
-0.125966 0.299566 0.233301
-0.126265 0.299562 0.2336
-0.12568 0.299735 0.233433
-0.125388 0.30003 0.233615
-0.12746 0.299541 0.233749
-0.12746 0.2996 0.234048
-0.127161 0.299559 0.234048
-0.126564 0.299576 0.233898
-0.126863 0.299575 0.234048
-0.12746 0.299736 0.234532
-0.127161 0.299705 0.234461
-0.126863 0.299761 0.234515
-0.126619 0.299728 0.234334
-0.126564 0.299896 0.234645
-0.125963 0.299719 0.233753
-0.126246 0.299718 0.234057
-0.125964 0.299934 0.234199
-0.125673 0.29996 0.233892
-0.125368 0.300318 0.23405
-0.126262 0.299933 0.234497
-0.12589 0.300261 0.234645
-0.125647 0.300282 0.234375
-0.125356 0.300583 0.234365
-0.125597 0.300537 0.234645
-0.125365 0.300898 0.234652
-0.12576 0.304569 0.232914
-0.125424 0.303908 0.233005
-0.125373 0.304195 0.232539
-0.125732 0.304283 0.233239
-0.125303 0.303528 0.233119
-0.125724 0.303734 0.233935
-0.125585 0.303165 0.234351
-0.125302 0.302701 0.234118
-0.12548 0.30331 0.233858
-0.125386 0.302411 0.234602
-0.125497 0.302709 0.234645
-0.125658 0.303029 0.234683
-0.12518 0.302937 0.233443
-0.126008 0.304425 0.233604
-0.126119 0.304255 0.234081
-0.12587 0.303459 0.234652
-0.126293 0.304239 0.234505
-0.130142 0.301221 0.23513
-0.130929 0.301928 0.234944
-0.130453 0.301509 0.235298
-0.130766 0.301792 0.235243
-0.129961 0.301192 0.235541
-0.130416 0.301541 0.235541
-0.130737 0.301823 0.235482
-0.130171 0.301498 0.235915
-0.130765 0.302006 0.23584
-0.130447 0.301689 0.23584
-0.130433 0.301827 0.236101
-0.130046 0.301522 0.236139
-0.13015 0.301811 0.236442
-0.132574 0.303852 0.234944
-0.132805 0.304203 0.23489
-0.13248 0.303904 0.235154
-0.132542 0.304179 0.235248
-0.131195 0.30226 0.235252
-0.131612 0.302746 0.235243
-0.131961 0.303198 0.235243
-0.131386 0.30259 0.235541
-0.131653 0.302991 0.235591
-0.131543 0.303008 0.23584
-0.131345 0.302707 0.235848
-0.131016 0.302143 0.235541
-0.131065 0.302385 0.235912
-0.132302 0.303479 0.234944
-0.132241 0.303604 0.235247
-0.132002 0.303605 0.235628
-0.131927 0.303329 0.235491
-0.131658 0.303277 0.235886
-0.131844 0.303605 0.23584
-0.132231 0.303952 0.23553
-0.132264 0.304203 0.235567
-0.131942 0.303897 0.235841
-0.131961 0.304203 0.235856
-0.131339 0.303016 0.23613
-0.13101 0.302526 0.236139
-0.13073 0.30213 0.236095
-0.130797 0.302521 0.236362
-0.130443 0.302117 0.236427
-0.13103 0.303077 0.236426
-0.13079 0.302709 0.236477
-0.130143 0.302119 0.236727
-0.130385 0.302411 0.236685
-0.130148 0.302411 0.236851
-0.130746 0.303008 0.236602
-0.130449 0.302699 0.236737
-0.13047 0.303008 0.236747
-0.130148 0.302709 0.236888
-0.130148 0.303008 0.236866
-0.131405 0.303307 0.236195
-0.131598 0.303605 0.236098
-0.131343 0.303605 0.236304
-0.131615 0.303904 0.236118
-0.131606 0.304203 0.236115
-0.131343 0.303904 0.236302
-0.131343 0.304203 0.236263
-0.131069 0.303307 0.236453
-0.131086 0.303605 0.236457
-0.131052 0.30394 0.23644
-0.131045 0.304203 0.236389
-0.130807 0.304227 0.236444
-0.130746 0.303307 0.236617
-0.130746 0.303605 0.236584
-0.130444 0.303293 0.236735
-0.130447 0.303605 0.236672
-0.130179 0.303616 0.236739
-0.130148 0.303307 0.236823
-0.130746 0.303904 0.236532
-0.130447 0.304054 0.236553
-0.130148 0.304054 0.236592
-0.128891 0.300407 0.235019
-0.129315 0.300663 0.235112
-0.128968 0.300612 0.235657
-0.128075 0.300015 0.23499
-0.127759 0.299913 0.234944
-0.127759 0.300024 0.235236
-0.128425 0.300217 0.235162
-0.128057 0.300092 0.235243
-0.128655 0.300475 0.235691
-0.128388 0.300314 0.235557
-0.128356 0.300412 0.23584
-0.128057 0.300211 0.235541
-0.127759 0.300184 0.235541
-0.128057 0.300333 0.235813
-0.127759 0.300333 0.235817
-0.129735 0.30095 0.235243
-0.129403 0.300824 0.235546
-0.129434 0.300951 0.23584
-0.129719 0.30121 0.235998
-0.128604 0.300629 0.23612
-0.128356 0.30059 0.236187
-0.128057 0.30057 0.236208
-0.127759 0.300582 0.236183
-0.128954 0.300802 0.236139
-0.129232 0.300943 0.236113
-0.128929 0.300929 0.236399
-0.129252 0.301167 0.236515
-0.12948 0.301264 0.236438
-0.129842 0.301521 0.236415
-0.128969 0.301209 0.236748
-0.129546 0.301518 0.236729
-0.129856 0.301807 0.236747
-0.129551 0.301813 0.236939
-0.129252 0.30134 0.236736
-0.129252 0.301515 0.236883
-0.128954 0.301561 0.237006
-0.129265 0.301804 0.237042
-0.128655 0.300878 0.236496
-0.128356 0.300758 0.236438
-0.128057 0.300745 0.236438
-0.127759 0.300863 0.236487
-0.128356 0.300967 0.236686
-0.128655 0.301073 0.236736
-0.128655 0.301216 0.236859
-0.128356 0.301216 0.236894
-0.128057 0.300984 0.236679
-0.12776 0.301219 0.236735
-0.128057 0.301216 0.236842
-0.128695 0.301508 0.237038
-0.128319 0.301507 0.237038
-0.127908 0.301515 0.236901
-0.127925 0.301813 0.236964
-0.12746 0.299887 0.234944
-0.127161 0.299905 0.234944
-0.12746 0.300025 0.235235
-0.127161 0.300044 0.235207
-0.126863 0.29999 0.235002
-0.126591 0.300045 0.234926
-0.126863 0.300251 0.235372
-0.126552 0.300306 0.235251
-0.12746 0.300335 0.235733
-0.127092 0.300309 0.235555
-0.127161 0.300568 0.235896
-0.126521 0.300603 0.235556
-0.126904 0.30063 0.235828
-0.126231 0.300273 0.234972
-0.125966 0.300383 0.234873
-0.126228 0.300555 0.235275
-0.125966 0.300692 0.235176
-0.125698 0.300692 0.234913
-0.126552 0.300896 0.235849
-0.12562 0.300917 0.235
-0.125394 0.301216 0.234833
-0.125903 0.300917 0.235301
-0.125673 0.301275 0.235236
-0.12534 0.301515 0.234763
-0.125658 0.301515 0.235256
-0.125402 0.301813 0.234825
-0.125659 0.301813 0.235257
-0.126242 0.300865 0.235561
-0.125971 0.301242 0.235537
-0.126275 0.30126 0.235831
-0.125932 0.301515 0.235578
-0.126227 0.301515 0.235879
-0.126201 0.301813 0.235907
-0.125917 0.301813 0.235599
-0.127486 0.300625 0.236132
-0.127161 0.300868 0.236181
-0.1275 0.300932 0.236426
-0.127313 0.301221 0.23651
-0.126895 0.300965 0.236122
-0.126621 0.301216 0.236101
-0.126863 0.301216 0.236257
-0.127033 0.301515 0.236487
-0.12655 0.301453 0.236149
-0.126855 0.301752 0.236443
-0.126501 0.301813 0.23619
-0.127471 0.301546 0.236731
-0.127405 0.301813 0.236762
-0.127161 0.301813 0.236641
-0.12985 0.302112 0.236928
-0.129569 0.302071 0.23704
-0.1298 0.302411 0.237016
-0.12985 0.302859 0.236966
-0.129599 0.302731 0.237039
-0.129551 0.303008 0.236988
-0.129252 0.302825 0.237049
-0.127759 0.302112 0.236909
-0.12823 0.302112 0.237055
-0.128203 0.302421 0.237
-0.127759 0.30256 0.23684
-0.128657 0.302858 0.23699
-0.128207 0.302709 0.236939
-0.128356 0.303008 0.236889
-0.128057 0.30313 0.23676
-0.127793 0.302991 0.23673
-0.12985 0.303307 0.236886
-0.129551 0.303307 0.236909
-0.12985 0.303716 0.236748
-0.129551 0.303717 0.23675
-0.129103 0.303307 0.236884
-0.128954 0.302813 0.23704
-0.129252 0.303782 0.236708
-0.128774 0.303527 0.236758
-0.129924 0.30434 0.236487
-0.129551 0.304341 0.236488
-0.129103 0.304054 0.236577
-0.12808 0.303747 0.236493
-0.127753 0.30361 0.236442
-0.127762 0.304279 0.236014
-0.128057 0.304384 0.236102
-0.128356 0.304082 0.236399
-0.128325 0.303465 0.236693
-0.127759 0.303307 0.236582
-0.128655 0.303904 0.236574
-0.12884 0.304277 0.236405
-0.125433 0.302139 0.2348
-0.125635 0.302411 0.235062
-0.12567 0.302081 0.235239
-0.125756 0.302713 0.235094
-0.125879 0.303004 0.235092
-0.126209 0.302112 0.235899
-0.125928 0.302112 0.235587
-0.126277 0.302594 0.235829
-0.125965 0.302422 0.235543
-0.126014 0.302709 0.235481
-0.126279 0.303194 0.235524
-0.126548 0.303131 0.235855
-0.126548 0.303927 0.235286
-0.126533 0.304225 0.234967
-0.126817 0.304322 0.235243
-0.126552 0.303615 0.235549
-0.126848 0.303615 0.235847
-0.126871 0.30407 0.235521
-0.127155 0.304065 0.235759
-0.125959 0.30332 0.234967
-0.126193 0.303748 0.234927
-0.126204 0.303447 0.235227
-0.126856 0.302165 0.236442
-0.126514 0.302112 0.236182
-0.126563 0.302568 0.236095
-0.126835 0.30256 0.236309
-0.126851 0.303058 0.236148
-0.127158 0.302879 0.236433
-0.127399 0.302112 0.236765
-0.127161 0.302112 0.236644
-0.127161 0.302411 0.236586
-0.127484 0.302578 0.236723
-0.12746 0.303008 0.236573
-0.127041 0.303307 0.236183
-0.127448 0.303313 0.236441
-0.12732 0.303586 0.236208
-0.127458 0.304051 0.235979
-0.128954 0.301813 0.237115
-0.128655 0.301813 0.23714
-0.128356 0.301813 0.2371
-0.129551 0.302411 0.237085
-0.129252 0.302112 0.23713
-0.128954 0.302112 0.237169
-0.129252 0.302411 0.237137
-0.128954 0.302411 0.237145
-0.128655 0.302112 0.237153
-0.128655 0.302411 0.237107
-0.134558 0.305507 0.230277
-0.13525 0.305978 0.230165
-0.134824 0.305678 0.230687
-0.135401 0.306124 0.230687
-0.135804 0.306362 0.230314
-0.135593 0.306247 0.230463
-0.136118 0.306596 0.230437
-0.135068 0.305853 0.231061
-0.135907 0.306526 0.230762
-0.135553 0.306268 0.231061
-0.13599 0.306632 0.230911
-0.135227 0.305995 0.231363
-0.134922 0.305701 0.231359
-0.135203 0.306024 0.231658
-0.134917 0.305707 0.231658
-0.135812 0.306608 0.231301
-0.135523 0.306297 0.231341
-0.135472 0.30636 0.231658
-0.135585 0.306599 0.231804
-0.134788 0.305683 0.232106
-0.135179 0.306117 0.231957
-0.134941 0.305977 0.232329
-0.135216 0.306327 0.232229
-0.135361 0.306593 0.232256
-0.137175 0.307472 0.230322
-0.137603 0.307834 0.230151
-0.137139 0.307787 0.230584
-0.137805 0.308385 0.230141
-0.137507 0.308086 0.230349
-0.137168 0.307919 0.230613
-0.137363 0.308385 0.2305
-0.137798 0.308684 0.230126
-0.137562 0.309347 0.230149
-0.137324 0.308802 0.230469
-0.13702 0.307189 0.230168
-0.136627 0.306864 0.230131
-0.136743 0.307149 0.23049
-0.136435 0.30688 0.230508
-0.136365 0.306951 0.230762
-0.136578 0.30719 0.230762
-0.136132 0.30688 0.231098
-0.13641 0.307227 0.231043
-0.13674 0.307435 0.230784
-0.136699 0.307787 0.231038
-0.136458 0.307489 0.231176
-0.136879 0.308044 0.23092
-0.136722 0.308195 0.231062
-0.136618 0.308448 0.231112
-0.136827 0.308908 0.230843
-0.136137 0.307133 0.231383
-0.136409 0.307787 0.231346
-0.136099 0.307489 0.231628
-0.136114 0.307787 0.231649
-0.135916 0.306884 0.231513
-0.135991 0.30719 0.231658
-0.13568 0.306891 0.231957
-0.135806 0.30719 0.231932
-0.135505 0.306891 0.232225
-0.135531 0.30712 0.232262
-0.135822 0.307489 0.231955
-0.135806 0.307787 0.231941
-0.135528 0.307512 0.232258
-0.135631 0.307937 0.232069
-0.136094 0.308086 0.231633
-0.136114 0.308534 0.2315
-0.136357 0.308976 0.231179
-0.135738 0.308811 0.231699
-0.135455 0.308161 0.232149
-0.135374 0.308431 0.232122
-0.135189 0.308896 0.232069
-0.13505 0.306294 0.232554
-0.134899 0.306043 0.232554
-0.13521 0.306593 0.232528
-0.134906 0.306294 0.232816
-0.134928 0.306415 0.232853
-0.134948 0.306593 0.232876
-0.135227 0.306713 0.232554
-0.135245 0.306891 0.232575
-0.135248 0.30719 0.232574
-0.134956 0.306891 0.232879
-0.134784 0.307095 0.233007
-0.135224 0.307468 0.232552
-0.135167 0.307787 0.232504
-0.134762 0.307489 0.23293
-0.134784 0.307932 0.232745
-0.134814 0.308581 0.232451
-0.137324 0.309911 0.230169
-0.137165 0.310588 0.230152
-0.137177 0.311073 0.230085
-0.136949 0.309513 0.230578
-0.136829 0.310177 0.230482
-0.135987 0.309271 0.23134
-0.136713 0.309713 0.230694
-0.136129 0.309718 0.231089
-0.136251 0.310098 0.230895
-0.136789 0.310643 0.230413
-0.137034 0.311596 0.230176
-0.13655 0.311073 0.230534
-0.136548 0.311521 0.230522
-0.136054 0.310476 0.230951
-0.136102 0.310919 0.230863
-0.135996 0.311397 0.230927
-0.135665 0.310775 0.231203
-0.134961 0.30945 0.232001
-0.135724 0.310028 0.231297
-0.135129 0.309889 0.231747
-0.134872 0.310177 0.231863
-0.135228 0.310621 0.231555
-0.135291 0.311073 0.231465
-0.135489 0.311596 0.231333
-0.13504 0.311521 0.231645
-0.134707 0.310603 0.231916
-0.137118 0.312418 0.230141
-0.136681 0.312119 0.230435
-0.13671 0.312711 0.230456
-0.136153 0.31182 0.230827
-0.136087 0.312193 0.230915
-0.13619 0.312567 0.23087
-0.136764 0.313164 0.230497
-0.136995 0.313536 0.230427
-0.13641 0.313002 0.230752
-0.136021 0.312866 0.231054
-0.136147 0.31342 0.231077
-0.136641 0.313679 0.23075
-0.135177 0.312044 0.231591
-0.135533 0.31243 0.231365
-0.13491 0.312754 0.231845
-0.134776 0.312108 0.231858
-0.135446 0.313131 0.231531
-0.135814 0.313583 0.231352
-0.13544 0.314139 0.231726
-0.135023 0.313992 0.231971
-0.133858 0.305044 0.230165
-0.13354 0.304784 0.230463
-0.134191 0.30524 0.230613
-0.133559 0.304747 0.230911
-0.134285 0.305242 0.231097
-0.133485 0.304757 0.230165
-0.133159 0.304481 0.230165
-0.133154 0.304487 0.230463
-0.133174 0.304472 0.230911
-0.134216 0.30513 0.231658
-0.134603 0.305421 0.231658
-0.13459 0.305429 0.231359
-0.133735 0.304798 0.231548
-0.134591 0.305434 0.231957
-0.13433 0.305211 0.231957
-0.134412 0.305319 0.232256
-0.133934 0.30491 0.231957
-0.133931 0.304909 0.232256
-0.133246 0.304477 0.231359
-0.133921 0.304913 0.232554
-0.134351 0.305376 0.2327
-0.133755 0.304776 0.232853
-0.133954 0.305028 0.233027
-0.134282 0.305462 0.233152
-0.133558 0.304683 0.2336
-0.133968 0.305188 0.23345
-0.134056 0.305398 0.233569
-0.13345 0.304488 0.232704
-0.133441 0.304495 0.233293
-0.134637 0.305687 0.2326
-0.134594 0.305751 0.232853
-0.134739 0.305995 0.232853
-0.134443 0.305696 0.233152
-0.134618 0.306063 0.233132
-0.134319 0.305752 0.23343
-0.134359 0.305995 0.233485
-0.134649 0.306294 0.233177
-0.134659 0.306593 0.233182
-0.134376 0.306294 0.233494
-0.13436 0.306593 0.233475
-0.13369 0.304922 0.233749
-0.133733 0.30524 0.234048
-0.133762 0.305398 0.234092
-0.133702 0.305099 0.233976
-0.133476 0.304731 0.234048
-0.133223 0.304502 0.234347
-0.133421 0.304862 0.234321
-0.133104 0.304502 0.234585
-0.133146 0.304734 0.234659
-0.133465 0.305099 0.234386
-0.133497 0.305398 0.23441
-0.133189 0.305099 0.234701
-0.133192 0.305398 0.234694
-0.134032 0.305551 0.233749
-0.134056 0.305696 0.23378
-0.134074 0.305995 0.233791
-0.13379 0.305696 0.234111
-0.133632 0.305846 0.234241
-0.133899 0.306299 0.233913
-0.134001 0.306739 0.233726
-0.133558 0.306593 0.234098
-0.133283 0.305964 0.234494
-0.133152 0.306647 0.234357
-0.132977 0.30607 0.234677
-0.132709 0.306453 0.234686
-0.134324 0.306855 0.233445
-0.13422 0.30719 0.233427
-0.13461 0.30719 0.233136
-0.134361 0.307624 0.233174
-0.134031 0.307637 0.233387
-0.13419 0.308397 0.232945
-0.133764 0.308119 0.233329
-0.134009 0.308848 0.232847
-0.133462 0.308916 0.233098
-0.133476 0.307914 0.233574
-0.133166 0.308562 0.233407
-0.132837 0.309132 0.233307
-0.132621 0.308697 0.233569
-0.132551 0.309159 0.233422
-0.133661 0.307122 0.233828
-0.133237 0.307279 0.234003
-0.133091 0.307952 0.233731
-0.132863 0.307585 0.234032
-0.133022 0.306891 0.234322
-0.132756 0.307153 0.234328
-0.132389 0.306704 0.234727
-0.132543 0.307653 0.234141
-0.132761 0.308384 0.233654
-0.132263 0.307236 0.23448
-0.131932 0.307113 0.23467
-0.131804 0.307758 0.234331
-0.131642 0.307044 0.234797
-0.131194 0.307787 0.234459
-0.131194 0.307195 0.234805
-0.130673 0.307536 0.234671
-0.130597 0.307862 0.234517
-0.129999 0.307679 0.234655
-0.132116 0.308208 0.233998
-0.132085 0.308903 0.2337
-0.131663 0.308543 0.234003
-0.13153 0.309175 0.233778
-0.131343 0.308753 0.234002
-0.131493 0.308055 0.234264
-0.131097 0.308534 0.234142
-0.130887 0.308922 0.234028
-0.130889 0.308106 0.234355
-0.130597 0.308534 0.234225
-0.130298 0.308306 0.234342
-0.129924 0.308235 0.234402
-0.130148 0.308833 0.23418
-0.130447 0.309054 0.23407
-0.125694 0.306567 0.231036
-0.125462 0.30614 0.231059
-0.125285 0.306159 0.230762
-0.125374 0.304494 0.232237
-0.125245 0.304653 0.231924
-0.125626 0.304938 0.232245
-0.125558 0.305238 0.231901
-0.125918 0.305688 0.232099
-0.125381 0.305503 0.231442
-0.125681 0.30616 0.231349
-0.125738 0.305848 0.23166
-0.125946 0.306593 0.23147
-0.125954 0.306309 0.231669
-0.126194 0.306527 0.23197
-0.126299 0.306142 0.232485
-0.125415 0.306754 0.230186
-0.125657 0.30691 0.230583
-0.125308 0.306424 0.230463
-0.125809 0.30719 0.230613
-0.125942 0.307799 0.230198
-0.126041 0.307847 0.230463
-0.12596 0.306959 0.231199
-0.126045 0.307331 0.231053
-0.126044 0.307631 0.230746
-0.126275 0.308034 0.230933
-0.126342 0.308744 0.230165
-0.126318 0.308536 0.230467
-0.126532 0.309111 0.230463
-0.126518 0.308833 0.230858
-0.126528 0.308615 0.23111
-0.126599 0.30915 0.230762
-0.126285 0.307263 0.231602
-0.126385 0.307937 0.231309
-0.126605 0.307715 0.231947
-0.126515 0.307109 0.232176
-0.126685 0.308612 0.23151
-0.126857 0.308517 0.231964
-0.126883 0.30916 0.231666
-0.126923 0.308086 0.232393
-0.127066 0.309356 0.231988
-0.127209 0.309167 0.232382
-0.1257 0.304773 0.232541
-0.125982 0.30533 0.232524
-0.126166 0.30522 0.233014
-0.126252 0.304778 0.23365
-0.126568 0.305834 0.233284
-0.126772 0.3063 0.233319
-0.126609 0.306803 0.232632
-0.126271 0.305667 0.232787
-0.126517 0.305301 0.233665
-0.126823 0.305384 0.234184
-0.126502 0.304943 0.23403
-0.126652 0.30495 0.234348
-0.126765 0.304866 0.234621
-0.127226 0.305554 0.234651
-0.126808 0.305685 0.233877
-0.126973 0.306214 0.233747
-0.127474 0.305983 0.234636
-0.127169 0.305823 0.234353
-0.127247 0.306665 0.233878
-0.127482 0.306467 0.234322
-0.127713 0.306294 0.23469
-0.127824 0.306549 0.234618
-0.127733 0.307186 0.234153
-0.127713 0.307857 0.233769
-0.128056 0.30792 0.234058
-0.12808 0.306731 0.234694
-0.128356 0.30701 0.234676
-0.128031 0.307247 0.23438
-0.128613 0.30698 0.234793
-0.12837 0.30763 0.2344
-0.128655 0.307599 0.234528
-0.12816 0.307489 0.234347
-0.129551 0.307851 0.234579
-0.129397 0.308369 0.234341
-0.129252 0.307772 0.234577
-0.128952 0.307638 0.234581
-0.128954 0.308265 0.234327
-0.1297 0.308833 0.234198
-0.129252 0.309047 0.234112
-0.128954 0.308865 0.234136
-0.127738 0.308457 0.233502
-0.128038 0.308511 0.233766
-0.128351 0.30824 0.234118
-0.127814 0.308982 0.233392
-0.128134 0.308982 0.233687
-0.128397 0.308907 0.233899
-0.128709 0.308067 0.234338
-0.128655 0.308534 0.234168
-0.128712 0.308954 0.234038
-0.126852 0.307549 0.232574
-0.126927 0.307139 0.233012
-0.12716 0.307716 0.233046
-0.127248 0.307328 0.233442
-0.12745 0.308016 0.233347
